# .PCD v0.7 - Point Cloud Data file format
VERSION 0.7
FIELDS x y z intensity
SIZE 4 4 4 4
TYPE F F F F
COUNT 1 1 1 1
WIDTH 1230
HEIGHT 1
VIEWPOINT 0 0 0 1 0 0 0
POINTS 1230
DATA ascii
-17.410265 -14.990901 0.98616654 8.3999996
-17.119864 -15.06341 0.98215711 11.538462
-16.641533 -15.035071 0.95450503 8.7333336
-16.245346 -15.043411 0.94172591 9.2361116
-15.831571 -15.037124 0.93169028 7.273809
-15.466249 -15.063034 0.91365087 7.3333335
-14.989772 -15.100818 0.89797682 7.6166668
-14.702003 -15.004823 0.88678312 6.1999998
-14.266642 -15.045767 0.88483942 9.4490747
-13.850821 -15.072494 0.85851753 6.125
-13.48161 -15.062473 0.84181184 4.5714288
-13.073099 -15.041857 0.83779639 7.3125
-12.730954 -15.076991 0.81861556 7.25
-12.276388 -15.032999 0.80684441 7.6666665
-11.898257 -15.050605 0.80423009 9.333333
-11.512145 -15.04996 0.78366274 6.909091
-11.074568 -15.119346 0.77360702 7.2857141
-10.663047 -14.996056 0.76177269 7
-10.250228 -15.128696 0.74643743 6.4285712
-9.8986349 -14.976202 0.74379385 9.833334
-9.5208845 -15.028152 0.73340088 6.8666663
-9.0723705 -15.049053 0.73799038 10.428572
-8.7094069 -15.031414 0.70653385 9.1875
-8.3369904 -15.137253 0.70388681 10.2
-7.8711624 -15.067389 0.68017918 6.9499998
-7.477325 -15.118316 0.67862177 9.2857141
-7.1414032 -15.047009 0.66163409 7.8402772
-6.6717153 -15.02618 0.64822006 9.090909
-6.2954941 -14.990916 0.6365298 10.123077
-5.8819919 -15.045536 0.62436318 9.2962971
-5.4566541 -15.06616 0.60894573 8.6230764
-5.0837283 -15.1019 0.60516638 10.477273
-4.691113 -15.126184 0.5919078 7.8705883
-4.2997637 -15.092951 0.57721192 8.318182
-3.858058 -15.137309 0.56760877 7.5653844
-3.4769297 -15.08854 0.56030369 8.6111107
-3.0866673 -15.119011 0.54787999 6.7333331
-2.6638587 -15.11447 0.53784692 6.0769229
-2.2831819 -15.045028 0.5207805 5.5277777
-1.9136637 -15.0509 0.51813501 6.5
-1.4912279 -15.043849 0.50743306 7.0925922
-1.104615 -15.017686 0.49968424 6.8076925
-0.68203741 -15.0633 0.48421684 6.1923075
-0.28302675 -15.067079 0.48558858 8.1333332
0.10325831 -15.085354 0.47481886 8.666667
0.49810845 -15.098783 0.46878824 10
0.90433675 -15.064694 0.4576371 10
1.2860423 -15.044745 0.44439131 8.875
1.742696 -15.147941 0.44434041 9.875
2.0619676 -15.027778 0.42867395 9.3999996
2.5102546 -15.09071 0.4319413 11.444445
2.8797612 -15.038075 0.41871849 10.818182
3.3729701 -15.151545 0.41756848 12.5
3.7079103 -15.04355 0.39986208 11.625
4.1820874 -15.057864 0.39358047 12.571428
4.556509 -15.097551 0.39468223 13.25
4.9015841 -15.078216 0.38431916 13.5
5.3517976 -15.100647 0.38328397 14.375
5.7254143 -14.981819 0.36473793 13.857142
6.0561748 -15.075505 0.35906693 13.2
6.5309243 -15.072062 0.35548955 14
6.8738766 -15.011473 0.34625521 14.714286
7.3136463 -15.109194 0.33505568 13.5
7.6770458 -15.089295 0.32295504 14.25
8.0885181 -15.085395 0.31686616 15.375
8.4697161 -15.032135 0.29939404 16.5
8.8861179 -15.077275 0.30276886 14.833333
9.3313046 -15.065346 0.31175902 14.8
9.7936878 -15.101532 0.29927707 14.333333
10.013619 -15.03651 0.28954795 16
10.566223 -15.129147 0.32164991 16.25
10.845325 -15.093729 0.3035031 15.833333
11.121222 -15.070554 0.20534691 17
28.787924 -14.916856 -0.078190215 19
29.277205 -15.146825 -0.10525152 19
-53.52644 -15.129372 2.2487462 20
-51.308517 -15.205716 2.1317248 20
-34.120556 -14.835389 1.6410729 18
-19.067209 -14.994299 1.1977942 12.238889
-18.768665 -15.158297 1.2204914 17.5
-13.967372 -14.945909 0.94852298 16
10.514901 -15.039847 0.42801288 17
10.908136 -15.096462 0.42923337 15.777778
11.304457 -15.090442 0.64452094 16.285715
11.631282 -15.133265 0.69666249 17.5
28.623852 -15.192636 -0.034078363 19
29.682884 -14.89045 -0.06576772 19
32.363819 -15.104803 -0.047628798 19
32.988747 -15.05683 -0.0040227105 19
35.141773 -14.996018 -0.082667358 19
40.211239 -15.285041 -0.33794177 20
42.049835 -15.166108 -0.28519902 20
43.246517 -14.91625 -0.30262274 20
46.088627 -14.982462 -0.20663388 20
46.354095 -15.050764 -0.23191004 20
68.724228 -14.92923 -0.91857904 21
73.442833 -15.074468 -0.77335459 21
-76.947998 -14.954351 3.1541083 21
-75.798767 -14.978293 3.1718695 21
-73.217964 -15.086417 3.0949295 21
-60.791813 -14.967346 2.7689991 20
-52.340687 -14.909799 2.2705798 20
-47.137428 -15.045313 2.2449141 19
-43.224304 -14.933055 2.0546887 19
-19.095736 -14.96307 1.5159956 12
11.329511 -15.020229 0.79614502 16.75
11.56893 -15.135823 0.86200023 17
12.091298 -15.169065 0.83436912 18
12.916938 -15.062084 0.82398975 17.333334
13.405377 -15.060853 0.91522026 17.444445
72.548187 -15.092713 -0.53360373 21
73.001587 -15.054468 -0.57273555 21
-84.980194 -15.078779 3.8178756 21
-84.200371 -15.082348 3.801986 21
-78.619461 -14.777647 3.3125181 21
-18.44985 -15.059868 2.2362378 18
-18.261669 -14.997956 2.0596263 14.958332
-18.047676 -14.878075 1.8699584 19
13.122629 -15.009195 1.297073 19
13.353702 -15.108823 1.3466157 18.444445
-18.495815 -14.824191 2.561589 17
-18.318068 -14.965966 2.4732141 17.208113
13.358536 -15.114799 1.7807108 19.285715
-141.32755 -14.90638 5.6920414 22
-18.485428 -14.814255 2.8668072 18
-18.33285 -14.967229 2.8502414 18.729059
13.141998 -15.001884 1.9294447 20
13.323088 -15.049419 2.0556223 19.928572
-18.50757 -14.928754 3.1835124 20.045626
-18.259485 -14.975702 3.266372 19.699499
4.1941671 -15.180429 2.8404386 19.666666
4.5794477 -15.089153 2.7897491 20.15843
4.9095922 -15.034042 2.75108 19.6
5.1817346 -15.024644 2.7601247 21
13.149522 -14.989255 2.560998 21
13.342475 -15.075218 2.4876494 20.736841
-151.46425 -14.943336 6.7893438 22.046
-18.521015 -15.044234 3.8331697 22.091251
-18.1222 -14.951055 3.7508242 21.109983
-17.804445 -15.047318 3.5892143 21.121166
3.0398972 -14.91729 3.2070668 20.727833
3.3654983 -15.096292 3.2741957 21.226643
3.8600261 -15.174191 3.0796032 20.599072
4.2151403 -15.034122 3.1525142 21.276035
4.5366831 -15.078403 3.1094975 21.03805
5.0167637 -15.018785 3.1508369 21.032375
5.2764606 -14.926875 3.1325071 21.032499
13.361094 -15.095929 2.9555113 21.625
-18.982027 -14.96703 4.2279801 22
-18.584375 -14.993847 4.0049219 21.692064
-18.277283 -14.91795 3.8867042 22
3.1791093 -14.98439 3.3620164 22.126499
3.4272141 -14.891317 3.4110177 21.461201
3.7664554 -14.937758 3.5252762 22.087999
4.1388803 -14.889493 3.4007952 22.06175
4.5411081 -15.026131 3.423363 22.014999
4.7864804 -14.988317 3.2971864 22
6.2110343 -14.991179 3.502547 22.066
13.411767 -15.014297 3.1901426 22
-19.266296 -15.051622 4.5102587 23.082001
-19.035376 -14.954398 4.4887147 22.864204
-18.769293 -14.826822 4.4522786 23
3.4383769 -14.977758 3.8663661 23.086321
3.7726302 -14.951848 3.8468983 23.083784
4.2541447 -14.974036 3.8577204 23.094168
4.518795 -14.94161 3.8553326 23.144623
4.974936 -14.996717 3.8461206 23.28941
5.3513098 -14.869746 3.790164 23.107
11.141019 -15.076654 3.8166203 23.084
11.287744 -15.149919 3.8603728 23.1395
13.479833 -15.000038 3.6329124 23
-18.9377 -14.978582 4.9422832 24.478842
-18.68943 -14.789753 5.0159268 24
4.6996317 -14.963674 4.1127863 24.101
4.8387914 -14.850504 4.319171 24.598499
11.702125 -14.872753 4.0797405 24
12.307554 -14.998878 4.1963401 24.028198
12.507942 -14.914329 4.2071157 24.042999
12.986381 -15.09334 4.2904005 24.063751
-18.94735 -14.945515 5.2434263 25.05171
5.4336748 -15.170446 4.7244353 25
13.178061 -14.89197 4.3315134 24
13.977458 -14.919476 4.5802336 25
14.087125 -15.00688 4.6460342 25
-18.90666 -14.925736 5.7004757 26.64065
-18.703854 -14.941783 5.6580625 25.541344
14.188397 -15.033055 4.9291363 25.4
-19.305315 -14.945888 6.1749816 28.511423
-19.030226 -14.915083 5.958847 27.771917
14.251992 -15.044003 5.1386027 26.004137
14.530436 -14.922099 5.221343 26.014166
-19.728794 -14.914467 6.5505376 27.841894
-19.411661 -14.950809 6.3378634 28.436707
13.833195 -14.88292 5.6521463 27
14.154517 -14.997182 5.596211 26.833334
14.772425 -14.986341 5.603241 26.720285
14.896071 -15.016447 5.7623849 27
-20.361534 -15.10927 7.0974574 27.098499
-20.098263 -14.881387 6.9143782 29.182438
-19.845182 -14.969319 6.7301888 27.973083
13.920156 -15.014153 6.0729795 27.857143
14.193509 -15.048038 6.1495295 27.666666
14.709757 -14.99695 6.1162901 27.326876
15.039343 -14.970416 6.1216822 27.76075
15.342686 -14.912002 6.1938982 28.019001
-20.419127 -14.839794 7.266026 30.160999
-20.238794 -14.911739 7.1654863 29.877438
15.408589 -14.889771 6.3023672 27.646814
15.803934 -14.984792 6.5358076 27.132833
-22.389351 -14.951135 7.8745093 31.16
-22.09656 -14.892399 7.6986628 28.624149
15.866531 -14.952209 6.8415346 28.750135
16.121531 -14.980314 6.8677692 27.6315
-22.742157 -14.90679 8.306427 28.0795
-22.502398 -14.889351 8.1329412 29.330601
-22.214758 -15.005897 7.9887562 29.596001
15.976315 -14.912857 7.116159 29
16.299429 -14.876303 7.3176126 29.551001
16.379961 -15.053925 7.5288949 29.637201
16.541876 -14.959981 7.7337503 29.333334
-18.906239 -15.370806 1.05098 9.666667
-18.649372 -15.435416 1.0463419 9.2857141
-18.319307 -15.439427 1.0387416 11.5
-17.904133 -15.445547 1.0168254 10.090909
-17.412893 -15.448145 1.0095558 10.8
-17.03299 -15.441022 0.9911505 9.333333
-16.690493 -15.464815 0.97277111 9.25
-16.223949 -15.417362 0.95031965 8.8589745
-15.897107 -15.479825 0.94303626 9.3846149
-15.444138 -15.454885 0.92146409 6.4166665
-15.093897 -15.44243 0.90891683 4.7962961
-14.662974 -15.450888 0.89748663 7.5714288
-14.178295 -15.411516 0.88503307 6.9000001
-13.89435 -15.48006 0.88155866 8.8999996
-13.460229 -15.449512 0.86863309 8.818182
-13.116816 -15.463259 0.84598118 5.375
-12.681702 -15.427267 0.83946085 7.5500002
-12.293757 -15.464459 0.82284391 7.0370374
-11.90585 -15.443851 0.80680394 7
-11.461451 -15.46346 0.80201095 9.272727
-11.044108 -15.435767 0.78921151 8.8222227
-10.694331 -15.392629 0.76515555 5.5
-10.336237 -15.461439 0.76402682 8.318182
-9.8486757 -15.465463 0.74705398 7.2380948
-9.4201269 -15.477435 0.74019051 10.166667
-9.0612326 -15.489396 0.72450525 7.0999999
-8.7024412 -15.519835 0.72942406 8
-8.2541933 -15.452252 0.70665461 7.25
-7.9341741 -15.40022 0.6952588 8.666667
-7.5397797 -15.423234 0.68243414 8.1750002
-7.0900459 -15.560296 0.67309409 7.9000001
-6.6969662 -15.38972 0.65587896 8.1000004
-6.2565207 -15.369597 0.64426118 8.1428576
-5.8577709 -15.445146 0.63359237 7
-5.4369001 -15.461126 0.62414157 9.041667
-5.0674458 -15.452279 0.61720008 9.044445
-4.6643109 -15.439337 0.60181385 9.958334
-4.3496175 -15.450233 0.59123999 8.083333
-3.8992381 -15.448997 0.57615507 5.5
-3.5173798 -15.421228 0.56459188 6.0227275
-3.0967064 -15.46979 0.54505134 3.7037036
-2.6730862 -15.468571 0.53648025 3.9375
-2.2727106 -15.47743 0.53542542 6.3650789
-1.8514111 -15.423554 0.52550346 7.0357141
-1.4522269 -15.428496 0.5092451 5.5952377
-1.0180173 -15.413546 0.49647629 5.7222223
-0.6882239 -15.49183 0.50628167 8.5
-0.31929308 -15.45213 0.49498752 8.1538458
0.15576625 -15.473363 0.48661593 9.4666662
0.53465468 -15.479033 0.47066417 8
0.89498508 -15.476525 0.46733785 8.3000002
1.3961332 -15.493157 0.47301546 11.4
1.7031693 -15.492638 0.45525688 10.625
2.11743 -15.41584 0.4507013 11.75
2.4968653 -15.415353 0.42940202 10.25
2.9279969 -15.481481 0.43771309 13.6
3.2894394 -15.466829 0.42354164 12.9
3.7004755 -15.399273 0.4101496 13
4.1401758 -15.412692 0.41337886 13.285714
4.5578032 -15.479592 0.4055829 12.375
4.8293648 -15.497618 0.39755064 12.5
5.2817559 -15.430649 0.38792711 13.4
5.7634068 -15.48781 0.37293273 12.875
6.1171665 -15.445594 0.36523747 13.428572
6.4934807 -15.537022 0.3566379 15.428572
6.8579249 -15.482081 0.35157359 15.3
7.2728744 -15.448914 0.33931515 15.125
7.7107325 -15.406646 0.33686125 14.857142
8.0828562 -15.435532 0.33777177 15.333333
8.45714 -15.473284 0.33914655 14.4
8.7792263 -15.495485 0.340316 14.5
9.2021036 -15.478826 0.3152993 15.2
9.6301842 -15.4354 0.3091509 14.6
10.294274 -15.495071 0.23214087 17
10.515216 -15.36291 0.26432621 16.4
10.832465 -15.510558 0.31172612 15.5
11.11889 -15.329321 0.2631816 17
28.89628 -15.664227 -0.088202089 19
-52.223881 -15.243104 2.2351384 20
-19.101391 -15.396858 1.2330793 12.823529
-18.408035 -15.402753 1.1042956 17
-13.564699 -15.301591 0.94525307 16
-13.150268 -15.643456 0.9423297 16
10.48824 -15.546499 0.40425032 17
10.988259 -15.456225 0.48360813 15.75
11.264784 -15.498802 0.66717613 16.5
28.202232 -15.649153 -0.017223258 19
29.266479 -15.363248 -0.049588606 19
32.042858 -15.668667 -0.030646766 19
32.51004 -15.474177 -0.013231915 19
34.13055 -15.381211 -0.054004204 19
34.841255 -15.562261 -0.06529589 19
43.038979 -15.56047 -0.20279546 20
46.052212 -15.565131 -0.16059366 20
47.385426 -15.47255 -0.21529242 20
48.364006 -15.569474 -0.22227807 20
68.603561 -15.358932 -0.90755576 21
70.77581 -15.518462 -0.7741859 21.157
73.356911 -15.42474 -0.76428777 21
-75.755821 -15.284964 3.1775584 21
-73.156265 -15.474748 3.1025875 21
-59.930683 -15.461877 2.7597189 20
-43.019203 -15.465244 2.0592499 19
-19.089996 -15.471281 1.5069213 11
-17.905113 -15.603745 1.841881 19
11.033017 -15.555495 0.7870785 18
11.335647 -15.466516 0.81081671 17
12.001581 -15.506254 0.84392524 18
12.922214 -15.463232 0.83313233 17.25
13.418344 -15.469518 0.92630368 17.375
72.437134 -15.505237 -0.52258813 21
72.85463 -15.572297 -0.5593642 21
73.612823 -15.633179 -0.60521168 21.1315
74.331879 -15.573624 -0.55673188 21
-84.13633 -15.390242 3.8066273 21
-78.569962 -15.302167 3.3242483 21
-18.485826 -15.462457 2.1749079 16.75
-18.280317 -15.434134 2.0757511 14.400902
-17.934296 -15.619551 1.9240224 18
11.398765 -15.639577 1.3973634 19
13.101366 -15.534756 1.2889454 19
13.356671 -15.465255 1.3647058 18.4375
-130.89725 -15.115877 5.3194518 22
-18.504189 -15.502028 2.498502 17.333334
-18.344824 -15.381323 2.4972918 16.055754
13.384016 -15.433928 1.7770588 19.181818
-141.26134 -15.493897 5.7033572 22
-18.494516 -15.49199 2.8390293 18.333334
-18.353235 -15.410322 2.8668809 17.601315
11.400495 -15.622493 1.9809177 20
13.07213 -15.490457 1.9636552 20
13.358026 -15.445827 2.0738053 19.799999
-18.492294 -15.469684 3.1783931 19.333334
-18.279385 -15.398669 3.2690558 19.196152
3.8228021 -15.387321 2.8872683 21.133499
4.276628 -15.391165 2.8568811 20.81625
4.5698934 -15.347633 2.8336492 20.853199
4.9761047 -15.315603 2.828371 21.034834
11.419086 -15.6122 2.5610609 21
13.130186 -15.407626 2.562233 21
13.363495 -15.442904 2.5003049 20.666666
-18.136906 -15.328239 3.7244656 21.273701
-17.897604 -15.457378 3.5683382 21.108625
3.4735355 -15.444692 3.1041863 21.077188
3.7922788 -15.442732 3.0870905 20.606375
4.1607642 -15.467657 3.0733807 20.863981
4.6299853 -15.486668 3.0861502 21.214266
5.0192795 -15.355007 3.1757174 21.592707
6.2351718 -15.548265 3.2515824 21.582001
6.4098525 -15.412848 3.2330739 21.0385
11.497526 -15.587203 3.1376276 22
13.423406 -15.487693 2.8902867 21.333334
-18.950947 -15.361505 4.2203999 22
-18.602583 -15.353436 4.0167994 21.655247
-18.39999 -15.382011 3.9435306 22.021833
3.0558529 -15.550169 3.649601 22.0345
3.8144903 -15.338123 3.4791067 21.775728
4.1498308 -15.460151 3.5497279 22.070143
4.5923367 -15.418579 3.4697065 22.02125
5.1266422 -15.593656 3.5109851 22.032499
5.3634868 -15.444314 3.4599552 22.047874
5.9398642 -15.527851 3.4318755 22.054419
6.1995544 -15.439773 3.4150028 22.073568
6.4637818 -15.456153 3.364012 22.121399
13.411472 -15.428786 3.182864 22
-19.015921 -15.356633 4.4750981 22.767319
-1.6679931 -15.419894 3.9820728 23.053782
-1.4812763 -15.532729 4.0599356 23.283049
-0.99156368 -15.53463 4.1147733 23.942554
-0.77539581 -15.498031 4.114162 24.076
3.0553601 -15.322875 3.8391957 23.1045
3.3694246 -15.341918 3.8490269 23.096533
3.7435892 -15.487074 3.8762875 23.057102
4.2213893 -15.46521 3.8746951 23.065706
4.4528689 -15.355979 3.8703179 23.10708
11.119954 -15.341787 3.7890935 23.030748
11.340818 -15.427598 3.86778 23
13.49897 -15.351269 3.6404598 23
-18.954477 -15.359839 4.9131694 24.406662
-18.738251 -15.498422 4.789578 24.087999
-1.8145618 -15.497636 4.6215353 27.054834
5.3880467 -15.411718 4.2847843 24
11.493429 -15.223298 3.9775934 23.132
12.301399 -15.370897 4.1878848 24.04475
12.560049 -15.387293 4.2323732 24.042833
13.035658 -15.583149 4.2934532 24.127001
-18.936132 -15.370395 5.2619629 25.355659
-18.729923 -15.488771 5.165885 25.087999
-1.7763723 -15.501462 4.6766038 26.111
5.4521365 -15.436883 4.7680449 25.766668
13.087803 -15.351337 4.3325868 24
13.508934 -15.406804 4.4666934 24
13.961331 -15.311153 4.583714 25
14.082162 -15.287725 4.6290011 25
-18.91276 -15.371922 5.6832705 26.838633
-18.673233 -15.384426 5.6436687 26.45525
5.5548477 -15.514663 4.9391794 26.0625
5.783287 -15.477568 5.1235571 26.647625
14.067477 -15.397813 4.8409686 25.153847
-19.263256 -15.341143 6.1593409 28.106323
-19.036449 -15.360264 5.9856491 27.921793
5.7306886 -15.436888 5.6402497 27.685165
14.184864 -15.382745 5.1575952 26
14.530233 -15.393343 5.3509855 26
-19.698786 -15.352559 6.5567842 28.951063
-19.415247 -15.314976 6.3388057 28.726793
5.806314 -15.472926 5.7565989 29.05975
13.623994 -15.492712 5.7621675 26
14.089452 -15.372571 5.6133103 26.642857
14.813314 -15.39227 5.6501842 26.799999
14.907431 -15.433156 5.8096018 27
-19.994036 -15.220301 6.8301039 29.109249
-19.786531 -15.305103 6.7237282 29.430876
13.914659 -15.347313 6.135922 27.4
14.102654 -15.374377 6.1564579 27.814301
15.256051 -15.312796 6.1972356 28
-21.998302 -15.345052 7.4938564 31.1775
13.961112 -15.502704 6.5753927 29
14.305178 -15.442288 6.6359005 29.026499
14.618694 -15.28665 6.5782118 29.060499
15.066476 -15.329402 6.4938073 27.127501
15.363972 -15.296291 6.3359103 27.682417
15.778018 -15.362348 6.5793228 27.142
-22.415712 -15.298403 7.9115725 31.1605
-22.162378 -15.3631 7.7939687 28.904528
13.938507 -15.513174 6.8451557 28
15.090637 -15.498322 6.7514763 28.565624
15.843469 -15.301388 6.8455067 28.7512
-22.45232 -15.277239 8.0853786 28.954834
15.953818 -15.373691 7.1325159 29
16.331202 -15.277628 7.360765 29.509407
16.353657 -15.4801 7.5480142 29.761375
16.643858 -15.286934 7.7099996 29.065252
-144.1796 -15.303425 15.244609 25.147499
138.12943 -15.280544 18.388105 28.1315
127.68215 -14.959962 19.439949 28.145
132.43355 -14.895723 23.991907 30.062
126.68179 -15.130517 26.182543 31.129
-19.166012 -16.003437 1.0714333 8
-18.673208 -15.790386 1.0588485 10
-18.285061 -15.87587 1.046232 10.333333
-17.816614 -15.832053 1.0252466 9.8000002
-17.494181 -15.868908 1.0191675 11.875
-17.025145 -15.809166 0.99878383 8.6999998
-16.629866 -15.828183 0.99100757 9.8571424
-16.279127 -15.856815 0.97436053 9.916667
-15.871431 -15.881948 0.95864135 11.2
-15.447553 -15.818295 0.93743163 9.5666666
-15.08219 -15.854732 0.92557347 8.2156868
-14.64626 -15.865937 0.90783435 4.8727269
-14.303006 -15.767699 0.88935846 7.2222223
-13.85424 -15.871933 0.87694299 5.8499999
-13.510677 -15.913675 0.87644273 7.5625
-13.050492 -15.838266 0.86913371 8.9333334
-12.658459 -15.862906 0.85432106 8.4285717
-12.262904 -15.814364 0.84039366 8.363636
-11.849368 -15.802621 0.81813097 6.6111112
-11.448353 -15.849406 0.80885231 7.2380953
-11.062391 -15.818358 0.7942614 7.4615383
-10.663696 -15.841656 0.79014051 10
-10.223919 -15.896395 0.78115761 9.7777777
-9.850255 -15.804582 0.76123244 7.5769229
-9.4933052 -15.79275 0.74942678 6.5999999
-9.1245928 -15.845654 0.7383818 6.9166665
-8.6533394 -15.87053 0.71902609 7
-8.2745781 -15.831577 0.72564822 9.625
-7.8866549 -15.87606 0.71899045 7.5925927
-7.4658985 -15.914796 0.6955294 5.1111112
-7.1689663 -15.80288 0.67471778 4
-6.6675601 -15.864998 0.67378485 7.5641022
-6.3089595 -15.835378 0.65710956 7.5
-5.9407597 -15.868622 0.65002406 7.4615383
-5.5094013 -15.842666 0.63669676 8.083333
-5.0434127 -15.877759 0.61737186 5.7142859
-4.6273985 -15.855309 0.61057627 6.9583335
-4.2800894 -15.906809 0.60657126 7.6363635
-3.9033909 -15.873237 0.58972412 6.0562501
-3.4303992 -15.933022 0.58161652 7.2769232
-3.0873768 -15.881798 0.56777114 5.9490743
-2.707684 -15.802769 0.56123513 7.4444447
-2.277051 -15.859962 0.54366678 5.0555553
-1.9016188 -15.892088 0.54353923 6.9444442
-1.5065889 -15.808634 0.53116584 7.3000002
-1.0762554 -15.905089 0.522071 7
-0.69876289 -15.848712 0.51635426 7.9375
-0.2666969 -15.820014 0.5109812 10.875
0.057853259 -15.915036 0.49815303 8.5
0.57828498 -15.863152 0.49224159 9.1000004
0.92910606 -15.917018 0.48297632 10.285714
1.3302066 -15.892673 0.47318971 11.2
1.6442158 -15.838549 0.46378267 11.666667
2.2503307 -15.910681 0.44879144 10.5
2.5067148 -15.828214 0.44427443 11.4
2.8999045 -15.862275 0.44181991 13.333333
3.3148344 -15.862824 0.43078226 11.111111
3.6708176 -15.812799 0.41570112 13.666667
4.0750885 -15.806847 0.42644247 14.142858
4.4429584 -15.878481 0.41204891 13.357142
4.8430133 -15.875327 0.39025912 15.2
5.234571 -15.839352 0.38788167 15
5.6644106 -15.870375 0.38982129 13.142858
6.0684209 -15.794417 0.37936312 15
6.4703798 -15.905116 0.38004413 15.111111
6.8925915 -15.892695 0.36616334 14
7.3302112 -15.861291 0.36248437 13.75
7.6861134 -15.851618 0.37248069 14.571428
8.1772528 -15.836891 0.35864305 15
8.6648808 -15.873238 0.33784908 15
8.993268 -15.840133 0.32608095 14.666667
9.3357801 -15.93046 0.31474376 15
9.6768656 -15.884036 0.28600281 16.666666
10.107278 -15.830517 0.30400383 16.5
10.461473 -15.806582 0.32432577 16.375
10.929706 -15.836912 0.29498792 15.4
11.366831 -16.060122 0.32307515 17
-53.254795 -15.993474 2.2607846 20
-19.278233 -15.716943 1.0956241 13
-19.074539 -15.806186 1.1915172 12.9
-18.754881 -15.856487 1.1476723 15.333333
-18.109282 -15.875154 1.0835774 14.5
-17.833225 -16.011345 1.1047471 17
-12.853179 -15.844966 0.94325465 16
11.005973 -15.927692 0.56540024 16.125
11.299461 -15.836128 0.67867279 16.857143
28.849144 -15.834803 -0.034169085 19
33.835236 -15.944484 -0.036471564 19
39.893028 -16.0945 -0.31587818 20
41.188152 -15.700273 -0.18761067 20
41.692184 -15.960586 -0.26371983 20
42.798843 -15.823874 -0.27707484 20
45.768299 -15.771292 -0.18444709 20
46.044498 -15.860414 -0.21119441 20
68.427704 -16.004452 -0.89150113 21
73.231224 -15.889279 -0.7516849 21
-76.789001 -15.789928 3.1680706 21
-75.716866 -15.592131 3.1831737 21
-73.090744 -15.961347 3.1119313 21
-52.172417 -15.73152 2.2847774 20
-46.94799 -15.640447 2.2534459 19
-42.794544 -15.989619 2.0641699 19
-19.078253 -15.72024 1.5324347 12
11.061653 -15.903111 0.87121373 16.928572
11.278275 -15.871481 0.98693937 16.785715
11.821097 -15.844874 0.88266218 17.666666
12.648872 -15.966153 0.85887587 17
12.84094 -15.782718 0.84107643 17.333334
13.404852 -15.845762 0.93074524 17.285715
72.359688 -15.815787 -0.5147056 21
72.7612 -15.936752 -0.55061924 21
73.466507 -16.009064 -0.56412494 21
74.263123 -15.993915 -0.54752868 21
-84.868294 -15.753237 3.8306303 21
-84.03022 -15.797759 3.8127804 21
-78.518814 -15.826518 3.3358741 21
-18.548214 -15.99667 2.1757374 14
-18.254822 -15.767733 2.1057034 15.18
-18.036238 -15.763804 1.9158027 19
11.128766 -15.989592 1.4022429 18
11.23765 -15.900622 1.3826302 17.75
13.031694 -15.816697 1.3346173 19
13.360568 -15.823432 1.3180983 18.5625
-130.81326 -15.652778 5.3298116 22
-18.2675 -15.776039 2.5138884 16.3125
11.149277 -15.991238 1.9613423 19
11.284735 -15.861783 1.7000226 18.23077
13.411399 -15.806276 1.7707745 19.23077
-18.283756 -15.766282 2.8591464 17.676413
2.4241536 -16.002132 2.5352702 18
11.113498 -16.023293 2.0855963 20
11.258174 -15.853792 2.0582871 19.153847
13.081836 -15.874561 1.9397064 20
13.339536 -15.847047 2.0926147 19.941177
-18.480904 -15.660034 3.1997139 21.099251
-18.241053 -15.756076 3.2740767 18.976231
3.7680435 -15.690313 2.9078417 20
5.1350522 -15.936684 2.7485564 21.1245
11.150613 -15.939867 2.4966371 20.25
11.316691 -15.833978 2.4986737 20.235294
13.071257 -15.852974 2.6025934 21
13.383223 -15.800425 2.5318658 20.8125
-18.487801 -15.716779 3.8374369 22.093834
-18.127859 -15.789387 3.7017176 20.762381
-17.911566 -15.657437 3.5620389 20.567499
3.4698911 -15.887105 3.0476451 20.160213
3.7643199 -15.767718 3.1248736 20.611116
4.104548 -15.812787 3.1769977 20.978727
4.5557132 -15.840662 3.1639867 21.068167
4.8983598 -15.878194 3.0080466 21.098249
5.540616 -15.85019 3.2639713 22.1175
5.9418397 -15.786452 3.2048342 21.575876
6.1109996 -15.7112 3.1733513 21.033501
6.5384316 -15.9694 3.127723 21.033001
11.163588 -15.777572 2.9840233 21
11.297071 -15.847003 2.9027488 21.076923
13.396634 -15.823766 2.9558809 21.583334
-18.961231 -15.737402 4.2341647 22.033716
-18.589209 -15.79884 4.0230117 21.618469
-18.392981 -15.900162 3.925369 22
-1.7216814 -15.911101 3.8146389 22.054499
3.0587823 -15.728401 3.5735698 22.068502
3.4237099 -15.832793 3.5297825 21.918072
3.7468767 -15.791377 3.5494671 21.952251
4.1725059 -15.797819 3.530304 21.916349
4.6387467 -15.786282 3.4220171 22.089167
4.9965553 -15.894426 3.4400978 22.06105
5.3972244 -15.840494 3.3942509 22.108
5.7954311 -15.747118 3.38466 22.09705
6.1550112 -15.669587 3.3388658 22.134666
11.159151 -15.956921 3.3062241 22
11.339261 -15.814767 3.2968147 22
13.0882 -15.803992 3.3252525 22
13.394497 -15.828423 3.1994781 22
-19.293339 -15.913249 4.4713969 23.027502
-19.033081 -15.757308 4.5049295 22.901127
-2.2615166 -15.913136 4.2192764 24.225418
-1.6454202 -15.789886 3.9986863 23.070858
-1.4806066 -15.7794 4.0841751 23.533756
-1.0205457 -15.665083 4.1762896 23.945024
-0.58088768 -15.671736 4.2082815 24.053667
-0.19058672 -15.776316 4.2210636 24.021374
0.030967351 -15.866129 4.2068157 24.026917
4.1881523 -15.653692 3.8701773 23.02425
5.1242404 -15.716445 4.0931835 24.05475
11.082522 -15.833798 3.8061428 23.005999
11.344194 -15.782769 3.7561898 23
13.525589 -15.78753 3.6855209 23
-19.318789 -15.88089 4.8420372 24
-18.989504 -15.724308 4.9199858 24.270258
-2.0992494 -15.795154 4.4045558 24.663095
-1.8477613 -15.746586 4.5438156 25.818176
-1.4470719 -15.766509 4.5131502 24.540813
-0.9590627 -15.910894 4.2936826 24.556
-0.58296472 -15.913328 4.3164525 24.345934
-0.24663337 -15.865906 4.3157129 24.444405
0.026406709 -15.752606 4.247057 24.0215
5.162559 -15.855168 4.1892605 24.112381
5.3425345 -15.77513 4.3366566 24.445288
5.7004986 -15.701024 4.4743729 24.567249
11.892912 -15.657621 4.1359334 24.040001
12.227655 -15.631628 4.1847057 24.039499
12.503554 -15.885313 4.2358885 24.044167
-19.275185 -15.900623 5.2337961 24.694168
-18.983133 -15.69121 5.2623119 25.28867
4.7386422 -15.809264 4.8267002 25.6556
5.1660886 -15.91591 4.9012055 25
5.4068923 -15.807577 4.7331848 25.569284
5.7865 -15.753889 4.6446829 25.071642
6.0740585 -15.763239 4.8692336 26.032499
6.518517 -15.928025 4.7234473 25.0285
12.934214 -15.762676 4.3222656 24
13.493609 -15.792748 4.4781899 24
13.964424 -15.833611 4.6272693 25
14.085562 -15.706384 4.6483197 25
-18.952566 -15.747509 5.6870594 26.632317
-18.720659 -15.717927 5.6699243 26.059643
4.3729329 -15.828596 5.1490479 26.727167
4.6014357 -15.807665 5.0530434 26.794413
5.5444674 -15.820978 5.0933752 26.596624
5.7707605 -15.730838 5.1425123 26.522749
6.2274218 -15.850627 4.988153 25.616749
13.976426 -15.845899 4.9556875 25.222221
14.047429 -15.794518 4.7761621 25
-19.272581 -15.777761 6.1645403 28.120714
-19.015875 -15.768092 5.9842238 27.519388
5.5571909 -15.850963 5.4185877 27.513124
5.7802548 -15.789801 5.4995422 27.85149
6.145926 -15.793154 5.500144 27.766216
13.953298 -15.811974 5.1656899 25.777779
14.263032 -15.711272 5.1609807 26
14.594065 -15.746521 5.4604769 26
-19.604086 -15.685429 6.4432445 26.775833
-19.394442 -15.714911 6.3572826 28.530918
5.8750443 -15.761402 5.7982416 28.920965
6.3609347 -15.946799 5.7926335 28.034
13.961806 -15.818873 5.65098 26.719999
14.183037 -15.671442 5.6263804 27
14.662405 -15.640053 5.6446862 27
14.900636 -15.743891 5.863884 27
-19.740259 -15.53085 6.7981877 29.0865
13.93965 -15.785299 6.1227837 27.458334
14.075063 -15.6346 6.1141624 28
15.128636 -15.732154 6.1576977 27.5
-22.025703 -15.771253 7.5328755 31.178249
-21.768093 -15.800445 7.4039459 30.337351
13.924533 -15.672523 6.5967441 29
14.098901 -15.771068 6.6253543 29
15.359965 -15.717661 6.3667097 27.75
-22.390854 -15.736721 7.9005518 31.161999
-22.075752 -15.704405 7.6830983 29.473307
13.919439 -15.909806 7.0580468 30
14.165583 -15.717869 6.8062615 28.233332
14.664843 -15.560592 6.6912789 29.075001
14.962051 -15.622342 6.9843678 29.032499
15.504438 -15.753871 6.8728843 28.063751
15.865957 -15.655271 6.9002738 28.724451
16.1451 -15.545031 6.9044304 27.631001
-22.446966 -15.739568 8.1221333 29.304749
-22.23531 -15.70956 8.0391502 30.126999
14.039294 -15.929135 7.1700196 30
15.942075 -15.714626 7.1459579 29
16.323427 -15.809595 7.3609333 29.197563
16.33102 -15.765907 7.4863286 29.783998
16.636585 -15.786712 7.7215362 29.0655
127.9593 -15.455556 16.208252 27.145
134.34334 -15.575342 24.684675 30.1595
134.09325 -15.506655 26.292351 31.1595
-19.013268 -16.173124 1.0761105 8.5
-18.601547 -16.20549 1.0665089 11.2
-18.445463 -16.29751 1.066837 8
-17.943415 -16.264946 1.0446972 9.3999996
-17.497438 -16.210676 1.0261502 8.375
-17.082081 -16.249289 1.0130986 10.571428
-16.672729 -16.259722 1.0004536 9.1428576
-16.268 -16.20306 0.98839927 10.111111
-15.870092 -16.196054 0.96744537 8.0769234
-15.45877 -16.264612 0.95675308 8.166667
-15.074935 -16.277447 0.94485193 8.9705887
-14.726117 -16.266558 0.92458969 9.4285717
-14.295508 -16.259975 0.91313243 8.3833332
-13.903625 -16.336683 0.89824122 6.8333335
-13.493015 -16.252249 0.88242298 8.0238094
-13.141326 -16.25065 0.87181371 8.25
-12.701638 -16.230038 0.85777909 7.1388884
-12.33782 -16.282951 0.84971672 6.6444445
-11.87662 -16.244299 0.83437651 6.5999999
-11.500402 -16.226603 0.81899559 5.8888893
-11.107316 -16.285376 0.80994648 6.8285713
-10.654741 -16.215174 0.78746736 4.2333331
-10.31338 -16.197983 0.77587354 6.3499999
-9.8673296 -16.255381 0.77661866 9.742424
-9.4452839 -16.266281 0.75750202 7.8666663
-9.0333672 -16.29471 0.75454271 7.7777777
-8.6593695 -16.218628 0.73425078 5.2312498
-8.2604666 -16.259941 0.72576958 6.9583335
-7.8722267 -16.261095 0.71249145 7.681818
-7.456851 -16.257957 0.70149547 8.3199997
-7.0659642 -16.220213 0.69650108 8.6153851
-6.6931286 -16.265862 0.69046026 8.5069447
-6.2598038 -16.272078 0.65977246 6.2777777
-5.8548007 -16.276552 0.65720117 7.4250002
-5.4686208 -16.225584 0.64581859 7.28125
-5.0939088 -16.293879 0.64234841 8.4444447
-4.7350001 -16.280216 0.62412375 5.9393935
-4.2827716 -16.332781 0.61988926 7.5999999
-3.8765736 -16.279922 0.60887337 7.8571429
-3.5437462 -16.257973 0.59577739 7.0388885
-3.1089334 -16.290281 0.58562273 6.912281
-2.7211969 -16.2875 0.57780802 8.2777777
-2.2869458 -16.215065 0.56780016 8.2777777
-1.9033571 -16.301083 0.55276936 7.2727275
-1.4535874 -16.240622 0.53564787 6.7142859
-1.04354 -16.299238 0.54338688 10.133333
-0.67770469 -16.229399 0.52346152 8.8000002
-0.29429391 -16.17592 0.51628178 9.181818
0.1150525 -16.342394 0.51346564 9
0.50282681 -16.242079 0.50060385 9
0.94123834 -16.252439 0.49665785 10.625
1.3043354 -16.244375 0.48342898 8.875
1.761543 -16.379713 0.47609305 13.75
2.1122289 -16.223757 0.46546763 11.307693
2.5339618 -16.235975 0.46416739 13.333333
2.9185815 -16.236273 0.44586301 12.125
3.22475 -16.234142 0.44532171 12.875
3.721837 -16.16663 0.4415015 14
4.1449637 -16.238312 0.42937693 12.4
4.3990974 -16.301062 0.43061242 12.666667
4.9263482 -16.35465 0.42616183 13.833333
5.3401494 -16.275122 0.40938058 12.875
5.6752172 -16.220324 0.40537858 13.8
6.0505056 -16.266588 0.39730415 15.5
6.4787354 -16.308983 0.39995119 14.125
6.8795371 -16.357677 0.39394391 13.833333
7.3047786 -16.253231 0.38670385 14.428572
7.7495537 -16.343325 0.37130839 15
8.0643473 -16.167364 0.35631976 14
8.5606222 -16.315586 0.33150959 15.166667
8.9010506 -16.275391 0.31875262 16.333334
9.307951 -16.265118 0.33516991 15.888889
9.7374153 -16.136148 0.34967375 16.5
10.251259 -16.332062 0.32891828 15.5
10.644839 -16.333494 0.30847916 16
10.99083 -16.265123 0.30777466 15.8
11.278854 -16.403719 0.33367187 15.333333
-52.011909 -16.071405 2.2478321 20
-51.062508 -16.071005 2.1433542 20
-45.854889 -16.142132 2.0547323 20
-19.360439 -16.098389 1.2020726 15
-19.10611 -16.262735 1.2345821 13.473684
-18.649832 -16.19363 1.0870734 12.6
-18.358192 -16.299961 1.0802215 13.2
-17.542711 -16.312202 1.1040412 17
-12.571466 -16.065331 0.9402622 16
-12.286592 -16.281681 0.93696034 16
11.027246 -16.238791 0.61336082 16.25
11.229386 -16.234348 0.56879914 16.666666
28.418657 -16.293497 -0.020049008 19
34.543686 -16.131683 -0.049170382 19
42.659893 -16.295101 -0.18161346 20
42.948654 -16.435019 -0.29142034 20
45.751938 -16.353479 -0.13873915 20
47.110458 -16.273266 -0.19511344 20
48.10812 -16.38365 -0.20354739 20
68.317299 -16.436398 -0.8813197 21
73.101425 -16.475225 -0.73755366 21
73.190392 -16.125973 -0.7466141 21
-76.699493 -16.259604 3.175776 21
-75.64444 -15.998881 3.1907449 21
-75.592728 -16.304184 3.1963453 21
-73.053223 -16.15453 3.115746 21
-59.698822 -16.272785 2.7718694 20
-53.930553 -16.230074 2.4841843 20
-46.771053 -16.237688 2.2604952 19
-19.102142 -16.270008 1.5805596 13.1
11.013152 -16.30221 0.94939929 17.307692
11.276782 -16.208569 1.0336726 17.142857
12.582744 -16.24247 0.8656413 17
13.115752 -16.124981 0.84919876 17
13.379209 -16.25087 0.93432409 17.428572
72.183884 -16.322327 -0.49909836 21
72.627113 -16.40188 -0.53868395 21
74.231567 -16.315041 -0.54176891 21
-84.795227 -16.220118 3.8393214 21
-83.940514 -16.15419 3.8180726 21
-78.469978 -16.13928 3.3429062 21
-19.060076 -16.402889 2.2144542 15
-18.610016 -16.177887 2.1394105 14.090909
11.052726 -16.361408 1.4629128 18.571428
11.256058 -16.256998 1.3634087 17.700001
13.365362 -16.239235 1.3471692 18.541666
-130.72961 -16.189335 5.3401437 22
-19.058043 -16.396317 2.5651724 15.833333
-18.703144 -16.174763 2.4458921 14.859307
-18.140636 -16.05541 2.4808667 20
11.096813 -16.404688 1.7651408 19
11.248368 -16.21858 1.7316432 18.272728
13.40447 -16.236803 1.7822123 19.210526
-141.14566 -16.274826 5.7179942 22
-19.061602 -16.387598 2.979784 16.833334
-18.686476 -16.176264 2.8864453 16.775
2.7919188 -16.23041 2.5132732 19
11.033377 -16.36607 2.1350131 19.888889
11.256907 -16.205034 2.0544147 19.333334
12.971054 -16.263334 2.0289905 20
13.384195 -16.227232 2.1275947 20
-19.048603 -16.366163 3.2959604 18.333334
-18.646864 -16.161777 3.2805543 18.359999
-18.112169 -16.034775 3.1520317 21
2.2137296 -16.319435 2.7102368 19.734724
2.4811642 -16.239109 2.6776645 19.162807
5.1227303 -16.321331 2.7902961 20
11.053984 -16.300802 2.6145146 20.75
11.257609 -16.148361 2.4576933 20
13.37656 -16.228374 2.5531957 20.814816
-18.479792 -16.19566 3.8539171 22.077499
-18.121281 -16.152981 3.7502127 21.411354
-17.923916 -16.167618 3.6102974 20.371716
-17.602774 -16.227135 3.5544813 21.1005
3.4799106 -16.237259 3.0670481 20
3.7821853 -16.172434 3.163929 21.004019
4.1264048 -16.202549 3.2368186 21.068285
4.4113045 -16.266838 3.281117 21.043833
5.088335 -16.168665 3.0913172 21.337
5.3846779 -16.252178 3.1081779 21.52557
5.7500377 -16.170143 3.0204294 21.075335
6.3013563 -16.220045 3.0446227 21.031
6.4626684 -16.249435 3.0278797 21.08025
11.171847 -16.144127 2.8190131 21
11.205428 -16.11445 2.8991461 21
13.465293 -16.229342 2.9173608 21.4
-18.97921 -16.186306 4.2517991 22.009125
-18.598587 -16.221731 4.0469427 21.570929
-18.389784 -16.081762 3.9434469 22.017801
-2.9207082 -16.35169 3.5693099 21.0145
-2.679215 -16.262962 3.8004036 21.797401
-2.1660075 -16.233587 3.6897871 21.369806
-1.824343 -16.20039 3.7784541 21.969715
3.0917332 -16.33264 3.3896461 21.595249
3.3805585 -16.13167 3.504431 22.102625
3.7692788 -16.231499 3.4817617 21.952356
4.1404057 -16.102043 3.4093926 21.584126
4.4872236 -16.153481 3.504957 22.110361
5.0299497 -16.161932 3.417635 22.099873
5.3653765 -16.116346 3.3207369 22.132
11.047548 -16.272568 3.2584496 22
11.211382 -16.053068 3.3404992 22
13.06702 -16.262072 3.3315279 22
13.429505 -16.221806 3.2104549 22
-19.205404 -16.282574 4.5410185 23.077
-19.029955 -16.183126 4.5015149 22.750835
-18.789988 -16.164711 4.4336786 23.088499
-11.225169 -16.297596 4.3100038 23.12775
-11.110477 -16.267649 4.2977295 23.08395
-10.444468 -16.378534 4.3736253 24.0285
-2.482687 -16.185709 4.0176811 23.065603
-2.304415 -16.191198 4.1254621 23.617393
-1.7578 -16.124996 3.9979408 23.107332
-1.507724 -16.182632 4.0645666 23.412962
-0.031534664 -16.078817 4.1591811 24.039751
0.030178796 -16.069971 4.133204 24.050251
4.964745 -16.31348 3.910007 23.148222
5.3227267 -16.323837 4.0599046 23.126499
10.942775 -16.167618 3.8465383 23.011501
11.272489 -16.191416 3.8467894 23.097126
13.527849 -16.197414 3.7107952 23
-19.318041 -15.975078 4.846611 24
-19.019766 -16.174803 4.9406919 24.29615
-2.0931408 -16.180046 4.3712158 24.597727
-1.8488921 -16.223682 4.5058765 25.02313
-1.36563 -16.190451 4.436914 24.649946
-1.0093975 -16.162086 4.4170518 24.508562
-0.62819523 -16.104843 4.3838758 24.577188
-0.33759764 -16.072731 4.3841243 24.339998
5.0992231 -16.17852 4.3044925 24.1514
5.3358135 -16.148195 4.4318919 24.736912
10.78331 -16.362713 4.0072374 23
11.500496 -16.30961 4.0045972 23.131001
11.915111 -16.120733 4.1552196 24.039499
12.262974 -16.062243 4.2019138 24.039
12.574679 -16.285166 4.2588038 24.04125
13.027986 -16.062428 4.3079724 24.126499
-19.008228 -16.165592 5.3050714 25.436302
4.7662787 -16.147474 4.853291 25.914463
4.9634433 -16.143131 4.7109885 25.355639
5.3388019 -16.14782 4.7271652 25.416641
5.6836519 -16.147297 4.7095146 25.074501
6.2511444 -16.214439 4.6846461 25.06675
12.930843 -15.991619 4.3293476 24
13.479682 -16.204985 4.4906278 24
13.787496 -16.103762 4.6576281 24.5
14.06943 -16.168709 4.6322513 25
-18.937641 -16.155382 5.6842017 26.584599
-18.708662 -16.205601 5.6993899 26.47673
3.978368 -16.274479 5.2201252 28.05225
4.3095784 -16.105328 5.1653576 26.795874
4.6378393 -16.174885 5.0557885 26.695864
4.8488884 -16.36759 5.0189137 25.132999
5.4485106 -16.137861 5.1011677 26.42428
5.8508248 -16.079029 5.0307617 25.339001
6.060688 -16.006172 4.9216967 25.1255
13.957716 -16.213558 4.9689722 25.200001
14.062206 -16.166483 4.7414188 25
-19.722836 -16.27907 6.2634754 28.0005
-19.220957 -16.008039 6.156445 28.029999
-19.017044 -16.12418 5.9880695 27.736502
5.2206736 -16.239094 5.587769 26
5.5101933 -16.233007 5.4530783 27.585903
5.772912 -16.150045 5.5276628 27.339096
6.12995 -16.079731 5.5276294 26.702099
13.911112 -16.202776 5.2096839 25.740913
14.418303 -15.985065 5.2721276 26
-20.060438 -16.085703 6.503407 29.008499
-19.763107 -16.216473 6.4244928 28.836561
5.5749774 -16.284578 5.7122355 29
5.899466 -16.240971 5.8138361 28.566751
6.16535 -16.152327 6.0003786 28.800636
13.935671 -16.192759 5.6996813 26.681818
-21.408398 -16.203798 7.0350628 29.505749
13.601799 -16.071131 5.9640365 26
13.960158 -16.156174 6.1707549 27.777779
-21.734627 -16.128574 7.3368702 29.553465
13.595984 -15.967142 6.4374948 27
13.863721 -16.21929 6.554213 28.285715
14.082122 -16.029564 6.609498 28.333334
15.387334 -16.054317 6.4502745 28
-22.357374 -16.151819 7.8847528 31.1635
-22.12182 -16.119267 7.7760959 29.532049
-21.868299 -16.288237 7.5866494 30.164
13.984605 -16.158129 6.8513479 28.90909
14.11469 -16.109348 6.815248 28.5
15.640754 -16.110666 6.7919888 28
15.862559 -16.078541 6.9729066 28.5
-22.489655 -16.093637 8.1241064 29.412502
-22.263216 -16.184786 8.0341282 30.16
13.922915 -16.017776 7.1587524 30
14.204002 -16.105301 7.2241774 29.664
14.736339 -16.265047 7.4723806 29.1285
15.067355 -16.077042 7.3347492 29.281799
15.399653 -16.061335 7.302949 29.094198
15.908836 -16.059626 7.2627535 28.893101
16.288647 -16.159487 7.3943243 30.016624
15.757447 -16.074787 7.4623041 30.0445
16.347403 -16.142221 7.5512028 29.897438
16.651628 -16.221766 7.7617245 29.063751
16.477711 -16.22262 7.8558087 30
16.497902 -15.924616 7.8437924 30
137.29459 -16.2057 14.915509 27.062
-136.18369 -15.577614 31.347719 30.0485
-19.4228 -16.83326 1.1093099 9
-19.129694 -16.796606 1.0733168 17
-18.714951 -16.486216 1.0748971 8.5
-18.337389 -16.686714 1.0711154 10
-17.829212 -16.55476 1.0550436 11.6
-17.496714 -16.63796 1.0382712 7.9000001
-17.092358 -16.637598 1.0261749 9.25
-16.675831 -16.636955 1.0089221 10
-16.27165 -16.603045 0.99773282 9.833333
-15.92268 -16.680693 0.98063558 7.1500001
-15.47528 -16.654205 0.97049785 8.8888893
-15.105296 -16.603752 0.95281088 7.5714288
-14.681292 -16.612864 0.93624055 8.3777781
-14.256365 -16.631836 0.9224813 8.7037029
-13.867646 -16.643904 0.9093976 8.8928576
-13.494377 -16.673445 0.89831054 6.0512824
-13.078984 -16.646276 0.88980126 9.2333336
-12.716494 -16.688654 0.8742094 8.2857141
-12.254858 -16.674675 0.86045235 8.1000004
-11.960807 -16.700779 0.85355675 8.8125
-11.477736 -16.655931 0.83769554 7.8333335
-11.047852 -16.666668 0.82476771 7.875
-10.694999 -16.645721 0.80733734 5.909091
-10.257938 -16.683908 0.79823279 7.1666665
-9.8565226 -16.664072 0.79034418 8.4285717
-9.5155249 -16.641731 0.77737457 8.1904764
-9.0836525 -16.694689 0.76636428 9.0444441
-8.6522913 -16.623131 0.74620992 7.6944447
-8.2461538 -16.654909 0.74129736 8.5
-7.8903027 -16.676771 0.72801411 5.8518519
-7.4671774 -16.658096 0.72274399 8.125
-7.0741963 -16.629881 0.69425613 4.9000001
-6.688293 -16.700958 0.68921167 6.4124999
-6.2600942 -16.615015 0.69023949 8.3125
-5.8798075 -16.675859 0.6789642 6.909091
-5.4964123 -16.67598 0.65883142 6.606061
-5.0514135 -16.667261 0.65317208 8.4358969
-4.6255751 -16.650375 0.63124168 5.6274514
-4.2405915 -16.660191 0.62399262 6.458333
-3.9038734 -16.624689 0.61275411 5.9027781
-3.5129285 -16.584023 0.60209286 5.7435894
-3.1144359 -16.647678 0.5890851 5
-2.6765401 -16.713001 0.58340198 6.0454545
-2.2814226 -16.633287 0.56903785 5.5
-1.8923278 -16.699619 0.56187201 6.125
-1.4803801 -16.659401 0.56241626 9
-1.1570016 -16.659124 0.5480721 7.6666665
-0.66318434 -16.65757 0.53464681 7.6999998
-0.31801865 -16.586269 0.5264737 8.272727
0.1421603 -16.658127 0.52296329 9.2222223
0.45322058 -16.58827 0.52035302 10.5
0.90510231 -16.667412 0.50839674 10.714286
1.2983176 -16.672279 0.49721748 10.666667
1.7933644 -16.710514 0.49226055 11.416667
2.1244307 -16.616203 0.48237979 12.25
2.5218318 -16.699905 0.47903952 12
2.8972502 -16.621403 0.47140521 11.875
3.3316822 -16.605366 0.4647862 13.571428
3.6700952 -16.688812 0.45651716 12.714286
4.0509558 -16.617289 0.44313869 12.25
4.4306545 -16.498783 0.43215752 15
4.8795724 -16.728966 0.43527862 14
5.3097248 -16.686203 0.44781595 13.666667
5.7424374 -16.708097 0.42782167 14.666667
6.1133022 -16.627043 0.42278644 14.6
6.5200114 -16.621899 0.39896151 14.166667
6.8647084 -16.749298 0.39243978 13
7.2460971 -16.779652 0.36933896 15
7.6558099 -16.762266 0.36148426 16.4
8.078599 -16.669783 0.3472217 15.8
8.489418 -16.669989 0.36441967 14.888889
8.9451971 -16.626152 0.36432004 15.5
9.2537432 -16.611599 0.35683212 14.666667
10.172704 -16.749985 0.34093943 15.6
10.511562 -16.729383 0.32622448 16.125
10.878776 -16.651163 0.32706282 15.8
11.330269 -16.759129 0.33202314 15.666667
-45.620029 -16.727011 1.9566438 20
-19.32971 -16.7306 1.1229595 15
-19.12175 -16.61311 1.1566876 11.625
-18.712339 -16.702738 1.09337 10
-18.315086 -16.678926 1.085614 12
-17.941959 -16.513868 1.0708096 13
-17.493073 -16.73353 1.062876 13
-17.238894 -16.59977 1.1042618 17
-11.987748 -16.478601 0.93566728 16
-11.544897 -16.780788 0.9307909 16
10.95378 -16.685055 0.63666672 16.375
11.401147 -16.707958 0.65534675 16.25
11.707752 -16.8633 0.70663035 18
33.533791 -16.504667 -0.019188952 19
34.248661 -16.704679 -0.034262493 19
39.547218 -16.892546 -0.29235503 20
41.346672 -16.715475 -0.21855253 20
42.400997 -16.594236 -0.25494701 20
45.445286 -16.558695 -0.16290388 20
45.711929 -16.660992 -0.18954118 20
68.216728 -16.755714 -0.87267518 21
70.383499 -16.801006 -0.74413651 21.1565
72.994095 -16.820469 -0.72754669 21
-75.538857 -16.6091 3.2019188 21
-72.980286 -16.590425 3.1241333 21
-42.57008 -16.513237 2.0682957 19
-19.106424 -16.553213 1.6750028 14
10.681726 -16.571423 0.94377518 18
10.944761 -16.667974 0.97172832 17.416666
11.377529 -16.630125 0.96427864 17
11.584668 -16.694061 0.88665843 18
12.486176 -16.694126 0.87755948 17
12.923918 -16.70892 0.869084 17
13.398484 -16.648216 0.94314611 17.5
72.058861 -16.730698 -0.48757729 21
72.41983 -16.66802 -0.54245263 21
73.320213 -16.631733 -0.54904604 21
74.144348 -16.841408 -0.53038079 21
-84.705734 -16.632208 3.8470058 21
-19.091984 -16.47197 2.1168029 14.333333
11.003395 -16.614756 1.4495243 18.222221
11.257989 -16.560555 1.4060322 18.142857
11.61132 -16.808298 1.3591924 19
13.035255 -16.605082 1.359336 19
13.377789 -16.67148 1.3281311 18.4375
-19.087816 -16.500864 2.5207331 16
11.059457 -16.637823 1.792812 19
11.272388 -16.639204 1.7093608 18.571428
13.396916 -16.650608 1.803869 19.181818
-141.09984 -16.665962 5.725462 22
-19.066977 -16.519936 3.0162289 18
2.698539 -16.658577 2.5294116 18.666666
3.1332772 -16.759905 2.5171411 19
3.2472718 -16.813282 2.4574623 19
10.740844 -16.668482 2.1709111 20
10.96815 -16.642418 2.2185729 20
11.296553 -16.622866 2.0446637 19.375
11.608197 -16.781599 1.9972796 20
13.040205 -16.619476 2.0196345 20
13.407104 -16.669357 2.1243289 20
-19.054831 -16.510599 3.3468387 19
1.8038031 -16.689217 2.8625822 19.200001
2.1551375 -16.621101 2.8243628 19.344
2.4928532 -16.600859 2.8381057 20.043819
2.9374669 -16.669178 2.6662395 20.023199
5.2675686 -16.625299 2.7800627 20
5.9639959 -16.642292 2.8594139 20
10.75966 -16.709354 2.7856712 21
11.032101 -16.603174 2.6094763 20.666666
11.246731 -16.528744 2.6875625 21
13.045043 -16.571089 2.67855 21
13.395391 -16.638338 2.5538692 20.792553
13.641012 -16.637987 2.5689957 21.110167
-18.466282 -16.481356 3.8402812 22.094336
-18.126516 -16.552685 3.7421603 20.443167
-17.913702 -16.59774 3.6566021 20.594282
-2.5488472 -16.72361 3.4849138 21.0145
1.9423556 -16.742579 3.3841469 22.120501
2.2384949 -16.735695 3.181576 21.251917
2.6410747 -16.77364 3.0665269 21.0455
3.0455539 -16.677341 3.2463109 21.635498
3.3608515 -16.686283 3.2253196 21.047092
3.7816894 -16.642853 3.1328804 20.416199
4.1522837 -16.683762 3.190243 21.092825
4.5464253 -16.699116 3.2612081 21.064751
5.3012962 -16.472511 2.9948099 21.062752
5.8361182 -16.645519 2.9311006 21.10075
6.1211152 -16.494972 2.9812722 21.099833
11.084521 -16.561668 2.8187416 21
13.481489 -16.593641 2.8647125 21.142857
-18.943804 -16.539122 4.2672915 22.076071
-18.577614 -16.573372 4.0370851 21.568727
-18.374434 -16.582249 3.9819474 21.7435
-2.8820283 -16.533396 3.6205215 22.104752
-2.6210673 -16.551138 3.7002287 21.855726
-2.1918263 -16.616409 3.7317345 21.713045
-1.8118609 -16.604681 3.7526999 21.938194
-1.4411181 -16.553703 3.7855024 22.056168
1.9168346 -16.636024 3.6072187 22.068573
2.0346534 -16.698086 3.5544424 21.971348
3.1753757 -16.776041 3.6750088 22.0315
3.406985 -16.645412 3.5178013 21.801064
3.7043347 -16.558912 3.5038753 21.911592
4.1221328 -16.724194 3.3559909 21.040001
4.473279 -16.780491 3.4414413 22.121
10.747628 -16.680714 3.4011986 22
10.948921 -16.641598 3.3951669 22
13.043537 -16.65362 3.3369939 22
13.434725 -16.637682 3.2576261 22
13.723629 -16.482565 3.1955364 22.139999
-19.98521 -16.757584 4.6926875 23
-19.52301 -16.655329 4.607717 23.087502
-19.039583 -16.511784 4.4446125 22.513041
-11.829133 -16.637499 4.4985266 24.0135
-11.275874 -16.581608 4.2511368 22.806955
-11.003185 -16.608809 4.3762999 23.669685
-10.574653 -16.548697 4.4351454 24.175747
-10.207911 -16.545399 4.4513364 24.417358
-9.8778 -16.568375 4.4601831 24.844749
-2.4881063 -16.549297 4.0284305 23.085979
-2.2414811 -16.618895 4.1287322 23.518135
-1.6633193 -16.406382 3.9466901 23.111
-1.4769099 -16.557459 4.0624628 23.284554
-0.54577518 -16.758904 4.1250153 23.011999
-0.16678226 -16.640066 4.0045967 23.054726
0.12550017 -16.533894 4.0580897 23.119875
4.7462978 -16.596535 3.8381326 23
4.9516983 -16.618876 3.8867636 23.034117
10.777969 -16.485018 3.8813028 23
11.138873 -16.560595 3.8055913 23.0385
13.530852 -16.640495 3.7208316 23
-19.978006 -16.750019 5.0182076 24
-18.983164 -16.413353 4.953186 24.0165
-11.692123 -16.595602 4.6749139 24.738251
-11.462639 -16.612762 4.8270855 25.682718
-11.039878 -16.730928 4.8045206 26.098124
-10.640166 -16.707609 4.5257936 24.291082
-10.216955 -16.697138 4.5462136 24.346813
-9.8134785 -16.670389 4.5320067 24.788658
-9.4874077 -16.707809 4.5246291 24.63625
-2.047334 -16.577013 4.3440223 24.687258
-1.8228384 -16.561165 4.4780369 24.579834
-1.3507612 -16.539024 4.4071608 24.668919
-1.0978514 -16.482397 4.4932718 24.242142
-0.70253038 -16.476492 4.5035052 24.126751
-0.0070900242 -16.51582 4.4069743 24.09
